ply
        format ascii 1.0
        element vertex 29992
        property float x
        property float y
        property float z
        property uchar red
        property uchar green
        property uchar blue
        end_header
3.708029 -0.467153 -10.510949 90 75 61
3.766423 -0.467153 -10.510949 98 80 59
3.838828 -0.468864 -10.549451 112 90 58
3.897436 -0.468864 -10.549451 108 90 61
3.956044 -0.468864 -10.549451 99 86 63
4.014652 -0.468864 -10.549451 96 84 63
4.073260 -0.468864 -10.549451 91 77 62
4.131868 -0.468864 -10.549451 104 83 64
4.190476 -0.468864 -10.549451 130 101 65
4.249084 -0.468864 -10.549451 133 102 63
4.307693 -0.468864 -10.549451 121 92 56
4.366301 -0.468864 -10.549451 116 88 54
4.424909 -0.468864 -10.549451 124 96 60
4.483517 -0.468864 -10.549451 137 108 63
4.542125 -0.468864 -10.549451 148 118 71
4.617647 -0.470588 -10.588235 132 105 70
4.676471 -0.470588 -10.588235 125 101 71
4.735294 -0.470588 -10.588235 132 109 77
4.829629 -0.474074 -10.666667 133 109 66
4.907063 -0.475836 -10.706320 131 104 53
4.966543 -0.475836 -10.706320 124 95 49
5.044776 -0.477612 -10.746268 111 85 44
5.085502 -0.475836 -10.706320 104 80 42
5.144981 -0.475836 -10.706320 107 80 40
5.166052 -0.472325 -10.627306 89 64 29
5.205883 -0.470588 -10.588235 59 38 15
5.245421 -0.468864 -10.549451 81 49 20
5.304029 -0.468864 -10.549451 80 53 30
5.343066 -0.467153 -10.510949 82 74 45
5.441176 -0.470588 -10.588235 94 87 57
5.624060 -0.481203 -10.827067 85 79 55
5.815384 -0.492308 -11.076923 83 85 46
5.876923 -0.492308 -11.076923 102 112 51
5.804511 -0.481203 -10.827067 95 105 44
5.842697 -0.479401 -10.786517 117 112 61
5.902622 -0.479401 -10.786517 141 124 77
5.984962 -0.481203 -10.827067 136 122 75
6.256809 -0.498054 -11.206225 105 105 62
6.710744 -0.528926 -11.900826 106 126 68
6.861925 -0.535565 -12.050209 105 130 67
7.016949 -0.542373 -12.203390 105 109 57
7.114893 -0.544681 -12.255320 150 132 74
7.182979 -0.544681 -12.255320 154 134 80
7.282051 -0.547009 -12.307693 161 148 81
7.350427 -0.547009 -12.307693 162 166 77
7.450644 -0.549356 -12.360515 163 168 75
7.487179 -0.547009 -12.307693 163 169 70
7.620690 -0.551724 -12.413794 159 164 65
-2.966292 -0.539326 -10.786517 239 39 55
-2.895522 -0.537313 -10.746268 233 39 57
-2.835821 -0.537313 -10.746268 230 39 54
-2.776119 -0.537313 -10.746268 227 37 56
-2.706320 -0.535316 -10.706320 222 37 54
-2.637037 -0.533333 -10.666667 217 36 51
-2.558824 -0.529412 -10.588235 213 34 50
-2.490843 -0.527473 -10.549451 213 32 53
-2.432235 -0.527473 -10.549451 213 33 46
-2.364964 -0.525547 -10.510949 207 33 46
-2.306569 -0.525547 -10.510949 206 32 41
-2.240000 -0.523636 -10.472727 206 30 41
-2.173913 -0.521739 -10.434783 197 31 40
-2.115942 -0.521739 -10.434783 205 31 43
-2.050541 -0.519856 -10.397112 203 30 45
-1.985612 -0.517986 -10.359713 204 29 49
-1.921147 -0.516129 -10.322580 200 31 44
-1.824561 -0.505263 -10.105263 206 32 44
-1.756098 -0.501742 -10.034843 207 32 47
-1.621262 -0.478405 -9.568107 212 34 50
-1.488959 -0.454259 -9.085174 204 35 51
-1.403077 -0.443077 -8.861539 208 41 61
-1.317365 -0.431138 -8.622754 241 54 73
-1.250737 -0.424779 -8.495575 245 53 70
-1.189504 -0.419825 -8.396502 242 46 66
-1.120000 -0.411429 -8.228572 235 42 64
-1.056180 -0.404494 -8.089888 217 43 58
-0.991736 -0.396694 -7.933884 137 50 56
-0.937330 -0.392371 -7.847412 73 58 49
-0.891304 -0.391304 -7.826087 64 59 47
-0.845528 -0.390244 -7.804878 63 57 44
-0.802168 -0.390244 -7.804878 63 57 44
-0.758808 -0.390244 -7.804878 64 59 50
-0.717391 -0.391304 -7.826087 74 58 52
-0.677596 -0.393443 -7.868853 106 49 50
-0.635616 -0.394521 -7.890411 139 45 55
-0.943231 -0.628821 -12.576419 180 44 59
-0.873362 -0.628821 -12.576419 147 72 71
-0.803493 -0.628821 -12.576419 174 157 148
-0.730435 -0.626087 -12.521739 178 166 156
-0.660870 -0.626087 -12.521739 175 163 154
-0.588745 -0.623377 -12.467532 174 162 150
-0.515021 -0.618026 -12.360515 168 157 126
-0.444444 -0.615385 -12.307693 160 151 67
-0.376068 -0.615385 -12.307693 171 167 59
-0.307692 -0.615385 -12.307693 181 178 67
-0.238298 -0.612766 -12.255320 183 185 69
-0.170213 -0.612766 -12.255320 191 192 74
-0.101695 -0.610169 -12.203390 195 196 85
-0.033898 -0.610169 -12.203390 192 196 81
0.033898 -0.610169 -12.203390 194 198 82
0.101695 -0.610169 -12.203390 201 204 87
0.168776 -0.607595 -12.151898 201 203 89
0.233333 -0.600000 -12.000000 194 195 84
0.298755 -0.597510 -11.950208 189 190 82
0.363636 -0.595041 -11.900826 172 162 70
0.424490 -0.587755 -11.755102 101 70 25
0.487805 -0.585366 -11.707317 103 69 35
0.550607 -0.582996 -11.659919 136 103 51
0.605578 -0.573705 -11.474104 139 104 46
0.664032 -0.569170 -11.383399 135 98 43
0.721569 -0.564706 -11.294118 130 90 43
0.781250 -0.562500 -11.250000 129 89 47
0.840467 -0.560311 -11.206225 119 83 42
0.895753 -0.555985 -11.119691 108 78 44
0.957529 -0.555985 -11.119691 111 83 48
1.015385 -0.553846 -11.076923 127 92 57
1.076923 -0.553846 -11.076923 135 101 59
1.134100 -0.551724 -11.034483 121 90 58
1.190840 -0.549618 -10.992367 110 82 54
1.247148 -0.547529 -10.950570 107 80 52
1.298113 -0.543396 -10.867925 111 81 48
1.353383 -0.541353 -10.827067 111 83 54
1.408240 -0.539326 -10.786517 105 82 57
1.457249 -0.535316 -10.706320 102 79 58
1.511111 -0.533333 -10.666667 101 77 52
1.558824 -0.529412 -10.588235 111 87 55
1.617647 -0.529412 -10.588235 115 92 63
1.676471 -0.529412 -10.588235 120 94 67
1.735294 -0.529412 -10.588235 118 90 67
1.794118 -0.529412 -10.588235 123 97 68
1.852941 -0.529412 -10.588235 136 109 74
1.911765 -0.529412 -10.588235 128 100 69
1.963370 -0.527473 -10.549451 125 94 67
2.021978 -0.527473 -10.549451 126 99 69
2.080586 -0.527473 -10.549451 114 89 63
2.131387 -0.525547 -10.510949 115 88 57
2.181818 -0.523636 -10.472727 122 96 59
2.231884 -0.521739 -10.434783 125 99 65
2.281589 -0.519856 -10.397112 138 112 72
2.330935 -0.517986 -10.359713 147 124 99
2.354610 -0.510638 -10.212766 173 147 115
2.411348 -0.510638 -10.212766 157 128 97
2.476868 -0.512456 -10.249110 149 127 106
2.533808 -0.512456 -10.249110 163 133 107
2.609319 -0.516129 -10.322580 134 101 71
2.685920 -0.519856 -10.397112 113 88 57
2.743682 -0.519856 -10.397112 115 95 63
2.801444 -0.519856 -10.397112 111 93 61
2.859206 -0.519856 -10.397112 111 93 70
2.916967 -0.519856 -10.397112 91 79 69
2.974729 -0.519856 -10.397112 88 77 72
3.032491 -0.519856 -10.397112 99 90 76
3.101449 -0.521739 -10.434783 109 99 77
3.159420 -0.521739 -10.434783 112 102 76
3.217391 -0.521739 -10.434783 121 105 72
3.287273 -0.523636 -10.472727 105 87 65
3.345454 -0.523636 -10.472727 101 81 62
3.403636 -0.523636 -10.472727 97 79 61
3.461818 -0.523636 -10.472727 95 80 61
3.520000 -0.523636 -10.472727 100 83 60
3.578182 -0.523636 -10.472727 106 87 63
3.649635 -0.525547 -10.510949 101 83 65
3.708029 -0.525547 -10.510949 93 78 63
3.766423 -0.525547 -10.510949 95 82 62
3.824817 -0.525547 -10.510949 109 91 65
3.883212 -0.525547 -10.510949 107 91 65
3.956044 -0.527473 -10.549451 96 83 65
4.014652 -0.527473 -10.549451 92 78 62
4.073260 -0.527473 -10.549451 88 75 60
4.131868 -0.527473 -10.549451 97 79 61
4.190476 -0.527473 -10.549451 116 87 63
4.249084 -0.527473 -10.549451 116 87 58
4.307693 -0.527473 -10.549451 115 89 53
4.366301 -0.527473 -10.549451 117 89 60
4.424909 -0.527473 -10.549451 120 94 63
4.483517 -0.527473 -10.549451 142 114 68
4.542125 -0.527473 -10.549451 148 119 73
4.600733 -0.527473 -10.549451 134 108 71
4.676471 -0.529412 -10.588235 136 111 76
4.735294 -0.529412 -10.588235 147 119 83
4.811808 -0.531365 -10.627306 141 112 67
4.907063 -0.535316 -10.706320 133 104 57
4.966543 -0.535316 -10.706320 124 94 54
5.026022 -0.535316 -10.706320 112 85 46
5.085502 -0.535316 -10.706320 106 81 45
5.107011 -0.531365 -10.627306 112 87 43
5.147059 -0.529412 -10.588235 102 78 35
5.186813 -0.527473 -10.549451 81 51 27
5.207273 -0.523636 -10.472727 83 47 26
5.227437 -0.519856 -10.397112 76 52 26
5.228571 -0.514286 -10.285714 79 71 40
5.381818 -0.523636 -10.472727 89 81 51
5.731801 -0.551724 -11.034483 83 76 51
5.883268 -0.560311 -11.206225 84 85 45
5.945525 -0.560311 -11.206225 99 109 45
5.938461 -0.553846 -11.076923 98 106 42
6.000000 -0.553846 -11.076923 126 119 67
6.061539 -0.553846 -11.076923 140 124 78
6.194552 -0.560311 -11.206225 131 118 77
6.406374 -0.573705 -11.474104 94 96 59
6.683127 -0.592593 -11.851851 100 119 64
6.833333 -0.600000 -12.000000 101 119 68
7.046809 -0.612766 -12.255320 104 106 56
7.114893 -0.612766 -12.255320 152 133 74
7.213675 -0.615385 -12.307693 155 133 79
7.344828 -0.620690 -12.413794 161 148 81
7.445888 -0.623377 -12.467532 162 165 77
7.515152 -0.623377 -12.467532 161 165 74
7.551724 -0.620690 -12.413794 162 165 71
7.686956 -0.626087 -12.521739 161 163 67
-2.955224 -0.597015 -10.746268 237 39 54
-2.895522 -0.597015 -10.746268 235 38 57
-2.825279 -0.594796 -10.706320 223 39 49
-2.765799 -0.594796 -10.706320 214 38 49
-2.696296 -0.592593 -10.666667 214 37 53
-2.627306 -0.590406 -10.627306 211 37 48
-2.549451 -0.586081 -10.549451 209 35 50
-2.481752 -0.583942 -10.510949 213 33 46
-2.423358 -0.583942 -10.510949 215 33 44
-2.364964 -0.583942 -10.510949 213 31 46
-2.298182 -0.581818 -10.472727 210 30 43
-2.240000 -0.581818 -10.472727 207 29 45
-2.173913 -0.579710 -10.434783 204 31 38
-2.108303 -0.577617 -10.397112 204 31 38
-2.043165 -0.575540 -10.359713 202 31 45
-1.971429 -0.571429 -10.285714 206 30 47
-1.867596 -0.557491 -10.034843 207 32 41
-1.780822 -0.547945 -9.863013 211 32 43
-1.674419 -0.531561 -9.568107 212 32 48
-1.574194 -0.516129 -9.290322 212 33 49
-1.475000 -0.500000 -9.000000 211 36 53
-1.398773 -0.490798 -8.834355 231 50 67
-1.317365 -0.479042 -8.622754 243 54 72
-1.250737 -0.471976 -8.495575 233 49 66
-1.189504 -0.466472 -8.396502 229 45 67
-1.113636 -0.454545 -8.181818 225 41 65
-1.050279 -0.446927 -8.044693 186 45 58
-0.986301 -0.438356 -7.890411 100 55 52
-0.934783 -0.434783 -7.826087 68 58 47
-0.891304 -0.434783 -7.826087 62 58 40
-0.845528 -0.433604 -7.804878 60 56 41
-0.800000 -0.432432 -7.783784 62 58 45
-0.756757 -0.432432 -7.783784 65 61 49
-0.717391 -0.434783 -7.826087 73 59 51
-0.673913 -0.434783 -7.826087 105 49 52
-0.633880 -0.437158 -7.868853 135 45 55
-0.943231 -0.698690 -12.576419 173 45 62
-0.877193 -0.701754 -12.631579 155 64 66
-0.803493 -0.698690 -12.576419 167 146 137
-0.730435 -0.695652 -12.521739 175 162 155
-0.658009 -0.692641 -12.467532 174 161 152
-0.583691 -0.686695 -12.360515 174 162 151
-0.512821 -0.683761 -12.307693 172 161 136
-0.444444 -0.683761 -12.307693 172 163 87
-0.374468 -0.680851 -12.255320 186 182 79
-0.306383 -0.680851 -12.255320 189 186 83
-0.237288 -0.677966 -12.203390 186 185 81
-0.168776 -0.675106 -12.151898 184 183 75
-0.101266 -0.675106 -12.151898 188 188 80
-0.033755 -0.675106 -12.151898 189 191 79
0.033755 -0.675106 -12.151898 195 201 84
0.101266 -0.675106 -12.151898 200 203 87
0.168776 -0.675106 -12.151898 193 196 81
0.233333 -0.666667 -12.000000 185 186 77
0.298755 -0.663900 -11.950208 182 181 80
0.363636 -0.661157 -11.900826 157 145 64
0.424490 -0.653061 -11.755102 87 60 21
0.487805 -0.650406 -11.707317 117 87 47
0.550607 -0.647773 -11.659919 137 103 54
0.605578 -0.637450 -11.474104 139 101 47
0.661417 -0.629921 -11.338583 139 101 44
0.718750 -0.625000 -11.250000 142 102 49
0.778210 -0.622568 -11.206225 139 99 49
0.833977 -0.617761 -11.119691 126 88 42
0.892308 -0.615385 -11.076923 111 78 48
0.953846 -0.615385 -11.076923 117 84 54
1.015385 -0.615385 -11.076923 123 89 52
1.072797 -0.613027 -11.034483 132 102 60
1.129771 -0.610687 -10.992367 128 97 59
1.181818 -0.606061 -10.909091 115 86 52
1.237736 -0.603774 -10.867925 106 82 54
1.293233 -0.601504 -10.827067 108 85 55
1.348315 -0.599251 -10.786517 103 82 56
1.397770 -0.594796 -10.706320 82 65 55
1.451852 -0.592593 -10.666667 79 64 61
1.500000 -0.588235 -10.588235 96 75 56
1.558824 -0.588235 -10.588235 110 85 58
1.617647 -0.588235 -10.588235 115 91 66
1.676471 -0.588235 -10.588235 113 89 67
1.735294 -0.588235 -10.588235 111 88 63
1.794118 -0.588235 -10.588235 117 91 65
1.852941 -0.588235 -10.588235 129 99 68
1.904762 -0.586081 -10.549451 118 93 68
1.963370 -0.586081 -10.549451 117 89 68
2.014599 -0.583942 -10.510949 117 86 65
2.072993 -0.583942 -10.510949 108 82 60
2.123636 -0.581818 -10.472727 111 86 57
2.173913 -0.579710 -10.434783 119 93 61
2.223827 -0.577617 -10.397112 126 99 62
2.273381 -0.575540 -10.359713 156 126 81
2.297872 -0.567376 -10.212766 173 145 111
2.338028 -0.563380 -10.140845 177 148 117
2.394366 -0.563380 -10.140845 127 105 80
2.450704 -0.563380 -10.140845 149 132 109
2.507042 -0.563380 -10.140845 167 138 109
2.572438 -0.565371 -10.176679 134 102 71
2.666667 -0.573477 -10.322580 111 86 57
2.724014 -0.573477 -10.322580 117 98 67
2.781362 -0.573477 -10.322580 101 83 54
2.838710 -0.573477 -10.322580 96 79 55
2.896057 -0.573477 -10.322580 92 78 62
2.953405 -0.573477 -10.322580 88 78 66
3.021583 -0.575540 -10.359713 101 91 72
3.090253 -0.577617 -10.397112 105 94 73
3.148015 -0.577617 -10.397112 117 105 77
3.205776 -0.577617 -10.397112 143 125 88
3.275362 -0.579710 -10.434783 119 100 71
3.333333 -0.579710 -10.434783 107 87 62
3.403636 -0.581818 -10.472727 101 84 61
3.461818 -0.581818 -10.472727 96 80 59
3.520000 -0.581818 -10.472727 102 84 58
3.578182 -0.581818 -10.472727 106 87 63
3.649635 -0.583942 -10.510949 100 82 60
3.708029 -0.583942 -10.510949 91 74 60
3.766423 -0.583942 -10.510949 90 76 60
3.824817 -0.583942 -10.510949 94 80 64
3.883212 -0.583942 -10.510949 107 90 64
3.941606 -0.583942 -10.510949 101 82 61
4.000000 -0.583942 -10.510949 100 80 60
4.058394 -0.583942 -10.510949 100 80 57
4.116788 -0.583942 -10.510949 100 81 56
4.175182 -0.583942 -10.510949 114 88 60
4.249084 -0.586081 -10.549451 122 94 63
4.307693 -0.586081 -10.549451 114 91 61
4.366301 -0.586081 -10.549451 106 84 59
4.424909 -0.586081 -10.549451 104 83 57
4.483517 -0.586081 -10.549451 119 95 60
4.542125 -0.586081 -10.549451 131 105 71
4.600733 -0.586081 -10.549451 129 103 75
4.676471 -0.588235 -10.588235 149 122 86
4.735294 -0.588235 -10.588235 159 128 91
4.811808 -0.590406 -10.627306 139 110 70
4.870849 -0.590406 -10.627306 131 103 58
4.966543 -0.594796 -10.706320 124 95 51
5.026022 -0.594796 -10.706320 114 87 44
5.085502 -0.594796 -10.706320 108 84 40
5.107011 -0.590406 -10.627306 113 89 41
5.147059 -0.588235 -10.588235 106 82 38
5.149091 -0.581818 -10.472727 81 51 28
5.169675 -0.577617 -10.397112 75 41 26
5.171429 -0.571429 -10.285714 68 44 26
5.154930 -0.563380 -10.140845 70 63 36
5.248227 -0.567376 -10.212766 81 74 45
5.843750 -0.625000 -11.250000 74 69 42
5.906250 -0.625000 -11.250000 79 81 40
5.968750 -0.625000 -11.250000 95 105 40
6.007782 -0.622568 -11.206225 100 105 42
6.070039 -0.622568 -11.206225 134 121 72
6.132296 -0.622568 -11.206225 139 123 76
6.243137 -0.627451 -11.294118 121 110 71
6.406374 -0.637450 -11.474104 81 87 48
6.655738 -0.655738 -11.803279 94 112 54
6.833333 -0.666667 -12.000000 91 110 58
7.046809 -0.680851 -12.255320 101 106 54
7.145299 -0.683761 -12.307693 151 135 73
7.275862 -0.689655 -12.413794 156 134 82
7.376623 -0.692641 -12.467532 158 146 80
7.478261 -0.695652 -12.521739 156 158 71
7.547826 -0.695652 -12.521739 159 163 72
7.617391 -0.695652 -12.521739 158 163 71
7.720524 -0.698690 -12.576419 159 161 67
-2.955224 -0.656716 -10.746268 223 38 57
-2.884758 -0.654275 -10.706320 230 38 51
-2.814815 -0.651852 -10.666667 225 38 52
-2.755556 -0.651852 -10.666667 214 38 50
-2.686347 -0.649446 -10.627306 212 37 47
-2.617647 -0.647059 -10.588235 213 36 47
-2.540146 -0.642336 -10.510949 213 34 47
-2.481752 -0.642336 -10.510949 212 33 43
-2.414546 -0.640000 -10.472727 215 32 45
-2.356364 -0.640000 -10.472727 210 31 42
-2.298182 -0.640000 -10.472727 206 31 38
-2.231884 -0.637681 -10.434783 207 30 41
-2.173913 -0.637681 -10.434783 208 30 40
-2.100719 -0.633094 -10.359713 210 31 40
-2.028571 -0.628571 -10.285714 213 31 43
-1.923345 -0.613240 -10.034843 210 31 42
-1.835616 -0.602740 -9.863013 206 32 41
-1.744966 -0.590604 -9.664430 207 31 46
-1.636364 -0.571429 -9.350649 212 32 46
-1.539432 -0.555205 -9.085174 210 34 48
-1.465839 -0.546584 -8.944099 218 43 61
-1.398773 -0.539877 -8.834355 246 56 74
-1.313433 -0.525373 -8.597015 245 51 69
-1.247059 -0.517647 -8.470589 236 47 65
-1.182609 -0.510145 -8.347826 229 44 63
-1.107345 -0.497175 -8.135593 211 42 58
-1.047354 -0.490251 -8.022285 145 49 56
-0.983607 -0.480874 -7.868853 80 60 44
-0.934783 -0.478261 -7.826087 66 60 42
-0.891304 -0.478261 -7.826087 61 57 40
-0.843243 -0.475676 -7.783784 59 55 41
-0.800000 -0.475676 -7.783784 62 58 43
-0.756757 -0.475676 -7.783784 66 62 48
-0.713513 -0.475676 -7.783784 72 61 51
-0.673913 -0.478261 -7.826087 104 51 49
-0.632153 -0.479564 -7.847412 130 45 50
-0.947368 -0.771930 -12.631579 162 45 60
-0.877193 -0.771930 -12.631579 163 60 66
-0.803493 -0.768559 -12.576419 168 140 133
-0.730435 -0.765217 -12.521739 174 163 157
-0.658009 -0.761905 -12.467532 174 163 152
-0.581197 -0.752137 -12.307693 173 160 148
-0.512821 -0.752137 -12.307693 172 160 140
-0.442553 -0.748936 -12.255320 171 160 93
-0.374468 -0.748936 -12.255320 171 162 70
-0.305085 -0.745763 -12.203390 160 151 62
-0.236287 -0.742616 -12.151898 155 147 57
-0.168776 -0.742616 -12.151898 166 160 64
-0.101266 -0.742616 -12.151898 177 175 74
-0.033755 -0.742616 -12.151898 176 173 76
0.033755 -0.742616 -12.151898 186 187 82
0.101266 -0.742616 -12.151898 192 195 81
0.168067 -0.739496 -12.100841 186 189 77
0.233333 -0.733333 -12.000000 182 182 77
0.298755 -0.730290 -11.950208 175 173 75
0.362140 -0.724280 -11.851851 162 155 68
0.424490 -0.718367 -11.755102 114 96 43
0.487805 -0.715447 -11.707317 124 96 49
0.550607 -0.712551 -11.659919 135 99 49
0.605578 -0.701195 -11.474104 139 99 41
0.658824 -0.690196 -11.294118 143 102 43
0.718750 -0.687500 -11.250000 146 103 47
0.775194 -0.682171 -11.162790 140 99 51
0.833977 -0.679537 -11.119691 137 98 52
0.892308 -0.676923 -11.076923 129 92 55
0.953846 -0.676923 -11.076923 125 88 55
1.011494 -0.674330 -11.034483 125 91 54
1.064639 -0.669201 -10.950570 132 102 59
1.116981 -0.664151 -10.867925 128 94 60
1.172932 -0.661654 -10.827067 117 86 54
1.228464 -0.659176 -10.786517 111 82 53
1.288390 -0.659176 -10.786517 106 81 55
1.338290 -0.654275 -10.706320 85 68 53
1.392593 -0.651852 -10.666667 74 59 54
1.446494 -0.649446 -10.627306 86 66 53
1.500000 -0.647059 -10.588235 108 82 53
1.558824 -0.647059 -10.588235 116 88 62
1.611722 -0.644689 -10.549451 117 90 69
1.670330 -0.644689 -10.549451 119 92 71
1.728938 -0.644689 -10.549451 117 93 70
1.787546 -0.644689 -10.549451 121 96 72
1.846154 -0.644689 -10.549451 129 103 76
1.904762 -0.644689 -10.549451 118 94 67
1.956204 -0.642336 -10.510949 115 89 61
2.014599 -0.642336 -10.510949 121 91 66
2.065454 -0.640000 -10.472727 109 83 58
2.115942 -0.637681 -10.434783 111 87 54
2.166065 -0.635379 -10.397112 119 93 60
2.207885 -0.630824 -10.322580 130 101 60
2.241135 -0.624114 -10.212766 173 140 90
2.273684 -0.617544 -10.105263 189 158 113
2.321678 -0.615385 -10.069930 168 140 110
2.377622 -0.615385 -10.069930 117 99 84
2.433566 -0.615385 -10.069930 146 127 104
2.489511 -0.615385 -10.069930 168 137 103
2.563380 -0.619718 -10.140845 130 101 68
2.628975 -0.621908 -10.176679 106 84 59
2.685512 -0.621908 -10.176679 108 88 62
2.742049 -0.621908 -10.176679 93 77 53
2.808511 -0.624114 -10.212766 88 74 54
2.865248 -0.624114 -10.212766 93 79 62
2.932384 -0.626335 -10.249110 98 85 70
3.010753 -0.630824 -10.322580 115 104 75
3.068100 -0.630824 -10.322580 111 101 70
3.136691 -0.633094 -10.359713 118 105 71
3.194245 -0.633094 -10.359713 145 126 85
3.263538 -0.635379 -10.397112 141 120 83
3.333333 -0.637681 -10.434783 117 94 63
3.391304 -0.637681 -10.434783 102 83 55
3.461818 -0.640000 -10.472727 100 84 56
3.520000 -0.640000 -10.472727 105 86 61
3.578182 -0.640000 -10.472727 106 88 63
3.636364 -0.640000 -10.472727 101 85 63
3.694546 -0.640000 -10.472727 94 75 61
3.766423 -0.642336 -10.510949 90 71 59
3.824817 -0.642336 -10.510949 94 77 61
3.883212 -0.642336 -10.510949 109 86 62
3.941606 -0.642336 -10.510949 110 85 59
4.000000 -0.642336 -10.510949 120 91 59
4.043636 -0.640000 -10.472727 124 95 60
4.101818 -0.640000 -10.472727 112 88 58
4.160000 -0.640000 -10.472727 113 91 59
4.218182 -0.640000 -10.472727 127 102 65
4.291971 -0.642336 -10.510949 119 96 63
4.350365 -0.642336 -10.510949 106 84 54
4.408759 -0.642336 -10.510949 104 81 53
4.483517 -0.644689 -10.549451 126 99 66
4.542125 -0.644689 -10.549451 136 107 75
4.600733 -0.644689 -10.549451 129 102 76
4.676471 -0.647059 -10.588235 150 124 87
4.735294 -0.647059 -10.588235 165 135 96
4.794117 -0.647059 -10.588235 138 109 73
4.870849 -0.649446 -10.627306 128 98 58
4.948148 -0.651852 -10.666667 124 94 50
5.007407 -0.651852 -10.666667 114 87 45
5.066667 -0.651852 -10.666667 109 85 40
5.088235 -0.647059 -10.588235 116 90 43
5.128205 -0.644689 -10.549451 104 80 38
5.111913 -0.635379 -10.397112 65 43 25
5.096086 -0.626335 -10.249110 54 30 23
5.080702 -0.617544 -10.105263 48 34 23
5.136842 -0.617544 -10.105263 51 48 32
5.192983 -0.617544 -10.105263 62 56 39
5.889764 -0.692913 -11.338583 58 53 32
5.952756 -0.692913 -11.338583 62 62 29
5.992157 -0.690196 -11.294118 75 80 33
6.031250 -0.687500 -11.250000 97 96 48
6.093750 -0.687500 -11.250000 138 121 76
6.180392 -0.690196 -11.294118 140 123 75
6.267716 -0.692913 -11.338583 113 101 68
6.432000 -0.704000 -11.520000 75 79 46
6.655738 -0.721311 -11.803279 87 105 47
6.861925 -0.736402 -12.050209 87 103 49
7.076923 -0.752137 -12.307693 102 104 46
7.175966 -0.755365 -12.360515 150 135 69
7.275862 -0.758621 -12.413794 157 135 84
7.376623 -0.761905 -12.467532 154 140 79
7.478261 -0.765217 -12.521739 148 148 65
7.547826 -0.765217 -12.521739 153 156 64
7.617391 -0.765217 -12.521739 153 159 59
7.720524 -0.768559 -12.576419 155 158 61
-2.944238 -0.713755 -10.706320 228 40 54
-2.874074 -0.711111 -10.666667 227 39 47
-2.814815 -0.711111 -10.666667 219 38 48
-2.745388 -0.708487 -10.627306 214 37 50
-2.676471 -0.705882 -10.588235 215 36 50
-2.617647 -0.705882 -10.588235 213 35 49
-2.540146 -0.700730 -10.510949 215 34 46
-2.472727 -0.698182 -10.472727 216 33 46
-2.414546 -0.698182 -10.472727 214 32 46
-2.356364 -0.698182 -10.472727 211 31 43
-2.289855 -0.695652 -10.434783 202 30 45
-2.231884 -0.695652 -10.434783 207 30 43
-2.158273 -0.690647 -10.359713 207 30 41
-2.093190 -0.688172 -10.322580 209 30 42
-1.986014 -0.671329 -10.069930 213 30 44
-1.903448 -0.662069 -9.931034 212 30 44
-1.810811 -0.648649 -9.729730 212 31 43
-1.688312 -0.623377 -9.350649 210 32 43
-1.600000 -0.609524 -9.142858 211 32 45
-1.525000 -0.600000 -9.000000 213 36 53
-1.452308 -0.590769 -8.861539 236 51 72
-1.390244 -0.585366 -8.780488 246 54 73
-1.309524 -0.571429 -8.571428 240 50 65
-1.243402 -0.563050 -8.445747 236 46 60
-1.172414 -0.551724 -8.275862 226 42 59
-1.094972 -0.536313 -8.044693 191 44 52
-1.038674 -0.530387 -7.955801 108 56 49
-0.978261 -0.521739 -7.826087 72 62 49
-0.934783 -0.521739 -7.826087 64 60 46
-0.888889 -0.520325 -7.804878 62 57 45
-0.843243 -0.518919 -7.783784 61 55 45
-0.800000 -0.518919 -7.783784 63 58 45
-0.756757 -0.518919 -7.783784 65 63 48
-0.713513 -0.518919 -7.783784 71 61 51
-0.673913 -0.521739 -7.826087 98 52 49
-0.632153 -0.523161 -7.847412 122 45 47
-0.955752 -0.849558 -12.743362 145 45 59
-0.884956 -0.849558 -12.743362 159 57 70
-0.807018 -0.842105 -12.631579 163 131 125
-0.730435 -0.834783 -12.521739 173 162 154
-0.658009 -0.831169 -12.467532 173 162 151
-0.583691 -0.824034 -12.360515 168 158 144
-0.512821 -0.820513 -12.307693 161 149 129
-0.442553 -0.817021 -12.255320 151 138 78
-0.372881 -0.813559 -12.203390 147 136 49
-0.303797 -0.810127 -12.151898 148 138 50
-0.236287 -0.810127 -12.151898 164 158 63
-0.168776 -0.810127 -12.151898 178 175 71
-0.101266 -0.810127 -12.151898 181 181 75
-0.033755 -0.810127 -12.151898 175 174 76
0.033755 -0.810127 -12.151898 173 173 70
0.101266 -0.810127 -12.151898 182 186 74
0.168067 -0.806723 -12.100841 188 194 79
0.233333 -0.800000 -12.000000 185 188 76
0.298755 -0.796681 -11.950208 177 177 78
0.362140 -0.790123 -11.851851 169 168 75
0.422764 -0.780488 -11.707317 149 142 65
0.485830 -0.777328 -11.659919 130 104 50
0.546185 -0.771084 -11.566265 134 97 45
0.603175 -0.761905 -11.428572 142 101 43
0.656250 -0.750000 -11.250000 149 106 48
0.715953 -0.747082 -11.206225 143 100 44
0.772201 -0.741313 -11.119691 139 99 52
0.830769 -0.738462 -11.076923 156 116 63
0.892308 -0.738462 -11.076923 147 110 59
0.946565 -0.732824 -10.992367 132 95 54
1.003802 -0.730038 -10.950570 125 91 57
1.056604 -0.724528 -10.867925 129 96 59
1.112782 -0.721804 -10.827067 127 92 56
1.168539 -0.719101 -10.786517 113 81 49
1.223881 -0.716418 -10.746268 115 81 52
1.278810 -0.713755 -10.706320 99 71 52
1.333333 -0.711111 -10.666667 85 65 52
1.387454 -0.708487 -10.627306 97 72 53
1.441176 -0.705882 -10.588235 113 82 51
1.500000 -0.705882 -10.588235 116 85 48
1.553114 -0.703297 -10.549451 119 91 62
1.611722 -0.703297 -10.549451 121 93 68
1.670330 -0.703297 -10.549451 123 92 63
1.728938 -0.703297 -10.549451 113 84 63
1.787546 -0.703297 -10.549451 115 89 65
1.839416 -0.700730 -10.510949 121 99 73
1.897810 -0.700730 -10.510949 122 97 74
1.956204 -0.700730 -10.510949 121 91 60
2.007273 -0.698182 -10.472727 115 88 63
2.057971 -0.695652 -10.434783 107 84 56
2.108303 -0.693141 -10.397112 116 91 60
2.150538 -0.688172 -10.322580 118 92 62
2.176678 -0.678445 -10.176679 131 103 59
2.217544 -0.673684 -10.105263 182 152 99
2.257840 -0.668990 -10.034843 194 165 115
2.313589 -0.668990 -10.034843 160 134 102
2.369338 -0.668990 -10.034843 118 101 87
2.425087 -0.668990 -10.034843 153 131 113
2.480836 -0.668990 -10.034843 157 129 102
2.545455 -0.671329 -10.069930 125 100 70
2.610526 -0.673684 -10.105263 104 83 59
2.666667 -0.673684 -10.105263 102 81 54
2.722807 -0.673684 -10.105263 93 77 48
2.788732 -0.676056 -10.140845 92 78 55
2.845070 -0.676056 -10.140845 97 81 59
2.911661 -0.678445 -10.176679 102 87 65
2.968198 -0.678445 -10.176679 102 93 71
3.024735 -0.678445 -10.176679 109 102 73
3.092199 -0.680851 -10.212766 119 108 73
3.171429 -0.685714 -10.285714 141 122 77
3.240143 -0.688172 -10.322580 137 118 72
3.321300 -0.693141 -10.397112 124 104 65
3.391304 -0.695652 -10.434783 101 82 56
3.449275 -0.695652 -10.434783 99 83 59
3.520000 -0.698182 -10.472727 105 87 67
3.578182 -0.698182 -10.472727 105 89 67
3.636364 -0.698182 -10.472727 103 87 65
3.694546 -0.698182 -10.472727 103 81 58
3.752727 -0.698182 -10.472727 99 77 53
3.797101 -0.695652 -10.434783 99 79 55
3.855072 -0.695652 -10.434783 104 82 58
3.913043 -0.695652 -10.434783 112 86 58
3.971014 -0.695652 -10.434783 129 101 58
4.028986 -0.695652 -10.434783 127 99 59
4.072202 -0.693141 -10.397112 119 94 60
4.129964 -0.693141 -10.397112 119 96 62
4.202899 -0.695652 -10.434783 121 98 65
4.276364 -0.698182 -10.472727 125 99 64
4.334546 -0.698182 -10.472727 130 101 60
4.392727 -0.698182 -10.472727 126 98 62
4.467153 -0.700730 -10.510949 138 109 72
4.542125 -0.703297 -10.549451 145 116 80
4.600733 -0.703297 -10.549451 150 121 81
4.676471 -0.705882 -10.588235 170 140 97
4.735294 -0.705882 -10.588235 166 135 99
4.794117 -0.705882 -10.588235 138 109 74
4.852941 -0.705882 -10.588235 127 96 58
4.929889 -0.708487 -10.627306 120 89 47
5.007407 -0.711111 -10.666667 116 88 45
5.066667 -0.711111 -10.666667 108 83 43
5.088235 -0.705882 -10.588235 118 89 44
5.090909 -0.698182 -10.472727 104 79 39
5.057143 -0.685714 -10.285714 69 50 32
5.042253 -0.676056 -10.140845 60 40 30
5.045296 -0.668990 -10.034843 49 41 30
5.101045 -0.668990 -10.034843 52 53 42
5.192983 -0.673684 -10.105263 57 57 52
6.056680 -0.777328 -11.659919 50 52 45
6.096774 -0.774194 -11.612904 53 62 40
6.063492 -0.761905 -11.428572 54 65 38
6.078740 -0.755906 -11.338583 90 89 52
6.141732 -0.755906 -11.338583 138 122 77
6.204724 -0.755906 -11.338583 140 122 81
6.317461 -0.761905 -11.428572 93 80 57
6.432000 -0.768000 -11.520000 55 58 34
6.655738 -0.786885 -11.803279 63 76 39
6.890756 -0.806723 -12.100841 62 71 40
7.076923 -0.820513 -12.307693 85 82 39
7.238095 -0.831169 -12.467532 146 129 69
7.275862 -0.827586 -12.413794 156 134 83
7.344828 -0.827586 -12.413794 148 130 75
7.445888 -0.831169 -12.467532 130 128 54
7.547826 -0.834783 -12.521739 131 134 51
7.617391 -0.834783 -12.521739 138 143 50
7.720524 -0.838428 -12.576419 143 147 52
-2.933333 -0.770370 -10.666667 232 39 56
-2.874074 -0.770370 -10.666667 230 39 54
-2.794118 -0.764706 -10.588235 220 37 56
-2.735294 -0.764706 -10.588235 213 35 52
-2.676471 -0.764706 -10.588235 212 34 52
-2.617647 -0.764706 -10.588235 210 34 52
-2.540146 -0.759124 -10.510949 210 34 47
-2.472727 -0.756364 -10.472727 217 34 45
-2.405797 -0.753623 -10.434783 213 32 44
-2.347826 -0.753623 -10.434783 208 32 41
-2.289855 -0.753623 -10.434783 208 29 44
-2.215827 -0.748201 -10.359713 210 30 44
-2.150538 -0.745520 -10.322580 209 29 47
-2.041958 -0.727273 -10.069930 209 29 44
-1.965398 -0.719723 -9.965398 206 29 45
-1.877551 -0.707483 -9.795918 209 29 47
-1.763158 -0.684211 -9.473684 213 30 45
-1.656051 -0.662420 -9.171974 206 32 45
-1.579937 -0.652038 -9.028214 202 33 49
-1.515528 -0.645963 -8.944099 224 45 62
-1.447853 -0.638037 -8.834355 248 56 73
-1.377643 -0.628399 -8.700907 243 52 69
-1.297935 -0.613569 -8.495575 235 48 64
-1.236152 -0.606414 -8.396502 226 44 61
-1.159091 -0.590909 -8.181818 211 42 59
-1.085873 -0.576177 -7.977839 153 48 52
-1.030137 -0.569863 -7.890411 85 60 51
-0.978261 -0.565217 -7.826087 71 63 50
-0.932249 -0.563686 -7.804878 63 63 46
-0.886486 -0.562162 -7.783784 60 59 46
-0.843243 -0.562162 -7.783784 61 57 46
-0.800000 -0.562162 -7.783784 63 59 48
-0.756757 -0.562162 -7.783784 66 62 48
-0.713513 -0.562162 -7.783784 69 60 49
-0.673913 -0.565217 -7.826087 95 53 52
-0.633880 -0.568306 -7.868853 123 45 52
-0.955752 -0.920354 -12.743362 123 47 56
-0.884956 -0.920354 -12.743362 130 59 67
-0.807018 -0.912281 -12.631579 150 119 114
-0.730435 -0.904348 -12.521739 165 156 144
-0.652360 -0.892704 -12.360515 164 155 143
-0.581197 -0.888889 -12.307693 166 156 142
-0.510638 -0.885106 -12.255320 165 151 133
-0.442553 -0.885106 -12.255320 153 139 81
-0.371308 -0.877637 -12.151898 158 149 56
-0.303797 -0.877637 -12.151898 166 161 60
-0.236287 -0.877637 -12.151898 167 164 61
-0.168067 -0.873950 -12.100841 172 172 65
-0.100840 -0.873950 -12.100841 180 183 77
-0.033755 -0.877637 -12.151898 177 182 79
0.033755 -0.877637 -12.151898 179 185 78
0.100840 -0.873950 -12.100841 184 191 85
0.168067 -0.873950 -12.100841 183 193 85
0.233333 -0.866667 -12.000000 175 185 86
0.298755 -0.863071 -11.950208 158 171 87
0.360656 -0.852459 -11.803279 150 167 94
0.422764 -0.845528 -11.707317 141 149 87
0.483871 -0.838710 -11.612904 128 104 51
0.539683 -0.825397 -11.428572 137 97 44
0.596078 -0.815686 -11.294118 142 100 43
0.656250 -0.812500 -11.250000 146 105 50
0.713178 -0.806202 -11.162790 146 106 51
0.769231 -0.800000 -11.076923 150 107 55
0.830769 -0.800000 -11.076923 161 121 64
0.885496 -0.793893 -10.992367 153 116 58
0.942966 -0.790875 -10.950570 136 98 56
0.992481 -0.781955 -10.827067 127 89 55
1.052632 -0.781955 -10.827067 130 96 58
1.108614 -0.779026 -10.786517 121 87 49
1.164179 -0.776119 -10.746268 113 79 45
1.219331 -0.773234 -10.706320 112 78 51
1.274074 -0.770370 -10.666667 97 71 53
1.328413 -0.767528 -10.627306 108 81 56
1.382353 -0.764706 -10.588235 119 89 51
1.441176 -0.764706 -10.588235 122 89 50
1.500000 -0.764706 -10.588235 119 89 52
1.553114 -0.761905 -10.549451 121 93 62
1.611722 -0.761905 -10.549451 121 93 67
1.664234 -0.759124 -10.510949 116 88 63
1.722628 -0.759124 -10.510949 109 82 60
1.781022 -0.759124 -10.510949 114 91 66
1.839416 -0.759124 -10.510949 123 103 78
1.897810 -0.759124 -10.510949 127 101 73
1.949091 -0.756364 -10.472727 126 95 60
2.007273 -0.756364 -10.472727 121 90 61
2.050541 -0.750903 -10.397112 113 89 62
2.093190 -0.745520 -10.322580 115 93 63
2.120141 -0.734982 -10.176679 113 88 54
2.161403 -0.729825 -10.105263 139 107 58
2.202091 -0.724739 -10.034843 187 156 104
2.250000 -0.722222 -10.000000 181 151 115
2.305556 -0.722222 -10.000000 130 108 86
2.361111 -0.722222 -10.000000 124 107 92
2.425087 -0.724739 -10.034843 152 131 116
2.480836 -0.724739 -10.034843 137 115 96
2.536585 -0.724739 -10.034843 115 95 76
2.592335 -0.724739 -10.034843 105 82 64
2.648084 -0.724739 -10.034843 108 89 58
2.703833 -0.724739 -10.034843 108 90 50
2.769231 -0.727273 -10.069930 105 87 57
2.835088 -0.729825 -10.105263 99 81 59
2.891228 -0.729825 -10.105263 118 99 70
2.947368 -0.729825 -10.105263 111 98 68
3.003509 -0.729825 -10.105263 112 102 72
3.059649 -0.729825 -10.105263 127 114 76
3.115789 -0.729825 -10.105263 142 123 77
3.194346 -0.734982 -10.176679 132 113 69
3.285714 -0.742857 -10.285714 116 98 59
3.366906 -0.748201 -10.359713 99 82 59
3.424460 -0.748201 -10.359713 96 80 62
3.494585 -0.750903 -10.397112 105 88 69
3.552346 -0.750903 -10.397112 108 93 68
3.610108 -0.750903 -10.397112 101 86 62
3.667870 -0.750903 -10.397112 95 78 55
3.712230 -0.748201 -10.359713 94 75 54
3.769784 -0.748201 -10.359713 93 74 59
3.827338 -0.748201 -10.359713 99 78 59
3.870968 -0.745520 -10.322580 112 88 60
3.928315 -0.745520 -10.322580 125 100 61
4.000000 -0.748201 -10.359713 124 99 63
4.057554 -0.748201 -10.359713 116 92 62
4.115108 -0.748201 -10.359713 118 95 63
4.187726 -0.750903 -10.397112 112 90 62
4.260870 -0.753623 -10.434783 130 101 62
4.318841 -0.753623 -10.434783 160 127 75
4.392727 -0.756364 -10.472727 143 113 72
4.450909 -0.756364 -10.472727 134 108 75
4.525548 -0.759124 -10.510949 138 112 81
4.600733 -0.761905 -10.549451 161 132 89
4.659341 -0.761905 -10.549451 174 143 101
4.735294 -0.764706 -10.588235 153 124 88
4.794117 -0.764706 -10.588235 134 107 68
4.852941 -0.764706 -10.588235 130 101 59
4.911765 -0.764706 -10.588235 119 90 47
4.988930 -0.767528 -10.627306 114 85 45
5.047970 -0.767528 -10.627306 105 81 40
5.088235 -0.764706 -10.588235 113 89 39
5.072464 -0.753623 -10.434783 102 78 34
5.057143 -0.742857 -10.285714 67 46 31
5.024561 -0.729825 -10.105263 59 40 31
5.027778 -0.722222 -10.000000 51 45 34
5.083333 -0.722222 -10.000000 55 57 49
6.166667 -0.866667 -12.000000 61 63 60
6.156379 -0.855967 -11.851851 55 61 52
6.171429 -0.848980 -11.755102 61 78 45
6.161290 -0.838710 -11.612904 69 88 52
6.126984 -0.825397 -11.428572 111 110 67
6.190476 -0.825397 -11.428572 139 122 76
6.253968 -0.825397 -11.428572 138 120 84
6.368000 -0.832000 -11.520000 80 75 57
6.536585 -0.845528 -11.707317 51 64 43
6.710744 -0.859504 -11.900826 54 73 47
6.978724 -0.885106 -12.255320 48 60 39
7.168831 -0.900433 -12.467532 71 72 36
7.301310 -0.908297 -12.576419 143 127 70
7.244635 -0.892704 -12.360515 156 134 83
7.282051 -0.888889 -12.307693 134 119 73
7.350427 -0.888889 -12.307693 88 96 45
7.515152 -0.900433 -12.467532 87 100 42
7.617391 -0.904348 -12.521739 95 105 47
7.720524 -0.908297 -12.576419 96 106 49
-2.933333 -0.829630 -10.666667 231 38 61
-2.852941 -0.823529 -10.588235 231 38 58
-2.794118 -0.823529 -10.588235 216 47 56
-2.735294 -0.823529 -10.588235 209 44 49
-2.676471 -0.823529 -10.588235 211 36 46
-2.598540 -0.817518 -10.510949 201 36 46
-2.530909 -0.814545 -10.472727 190 35 49
-2.463768 -0.811594 -10.434783 211 34 47
-2.405797 -0.811594 -10.434783 210 33 39
-2.330935 -0.805755 -10.359713 202 32 38
-2.265233 -0.802867 -10.322580 206 32 39
-2.184397 -0.794326 -10.212766 204 31 41
-2.097902 -0.783217 -10.069930 193 30 47
-2.020761 -0.775087 -9.965398 206 29 49
-1.938567 -0.764505 -9.829351 207 30 45
-1.852349 -0.751678 -9.664430 209 30 44
-1.740260 -0.727273 -9.350649 209 31 44
-1.645570 -0.708861 -9.113924 203 31 47
-1.575000 -0.700000 -9.000000 210 36 56
-1.506173 -0.691358 -8.888889 240 54 64
-1.443425 -0.685015 -8.807340 247 56 63
-1.361194 -0.668657 -8.597015 244 51 63
-1.286550 -0.654971 -8.421053 233 47 61
-1.218391 -0.643678 -8.275862 211 43 62
-1.142857 -0.627451 -8.067227 194 42 57
-1.079890 -0.617080 -7.933884 119 53 53
-1.027322 -0.612022 -7.868853 75 62 53
-0.978261 -0.608696 -7.826087 68 64 46
-0.932249 -0.607046 -7.804878 66 67 44
-0.886486 -0.605405 -7.783784 69 69 52
-0.843243 -0.605405 -7.783784 64 64 47
-0.800000 -0.605405 -7.783784 63 60 46
-0.756757 -0.605405 -7.783784 67 62 48
-0.715447 -0.607046 -7.804878 69 60 48
-0.673913 -0.608696 -7.826087 99 55 53
-0.635616 -0.613699 -7.890411 130 45 56
-0.955752 -0.991150 -12.743362 116 48 56
-0.884956 -0.991150 -12.743362 104 61 61
-0.807018 -0.982456 -12.631579 117 85 72
-0.730435 -0.973913 -12.521739 140 125 109
-0.652360 -0.961373 -12.360515 152 141 125
-0.578723 -0.953192 -12.255320 150 136 122
-0.510638 -0.953192 -12.255320 141 126 112
-0.438819 -0.945148 -12.151898 144 136 89
-0.371308 -0.945148 -12.151898 157 159 84
-0.302521 -0.941176 -12.100841 160 172 87
-0.235294 -0.941176 -12.100841 156 172 88
-0.168067 -0.941176 -12.100841 155 174 89
-0.100840 -0.941176 -12.100841 151 169 88
-0.033613 -0.941176 -12.100841 150 168 92
0.033613 -0.941176 -12.100841 158 181 99
0.100840 -0.941176 -12.100841 159 185 107
0.166667 -0.933333 -12.000000 152 181 112
0.232365 -0.929461 -11.950208 146 181 118
0.296296 -0.921811 -11.851851 140 178 123
0.359184 -0.914286 -11.755102 136 174 128
0.419355 -0.903226 -11.612904 126 145 99
0.480000 -0.896000 -11.520000 126 102 50
0.537549 -0.885375 -11.383399 135 97 44
0.593750 -0.875000 -11.250000 129 89 40
0.656250 -0.875000 -11.250000 143 102 50
0.713178 -0.868217 -11.162790 156 115 55
0.769231 -0.861538 -11.076923 156 113 56
0.824427 -0.854962 -10.992367 151 111 58
0.882129 -0.851711 -10.950570 129 95 47
0.932331 -0.842105 -10.827067 119 81 45
0.988764 -0.838951 -10.786517 121 83 48
1.048689 -0.838951 -10.786517 127 93 54
1.100372 -0.832714 -10.706320 124 88 47
1.159851 -0.832714 -10.706320 120 82 43
1.210332 -0.826568 -10.627306 109 77 46
1.269373 -0.826568 -10.627306 103 78 55
1.323529 -0.823529 -10.588235 122 92 60
1.382353 -0.823529 -10.588235 128 95 57
1.441176 -0.823529 -10.588235 124 89 54
1.494506 -0.820513 -10.549451 123 89 59
1.553114 -0.820513 -10.549451 126 94 64
1.605839 -0.817518 -10.510949 119 90 67
1.664234 -0.817518 -10.510949 119 90 67
1.722628 -0.817518 -10.510949 116 88 66
1.781022 -0.817518 -10.510949 115 92 70
1.839416 -0.817518 -10.510949 125 105 81
1.897810 -0.817518 -10.510949 130 107 77
1.949091 -0.814545 -10.472727 129 102 69
2.000000 -0.811594 -10.434783 122 92 60
2.043165 -0.805755 -10.359713 114 86 56
2.063604 -0.791519 -10.176679 116 91 59
2.112676 -0.788732 -10.140845 118 91 50
2.153846 -0.783217 -10.069930 149 116 65
2.202091 -0.780488 -10.034843 186 155 111
2.250000 -0.777778 -10.000000 147 119 96
2.305556 -0.777778 -10.000000 102 82 70
2.361111 -0.777778 -10.000000 116 96 89
2.416667 -0.777778 -10.000000 114 93 86
2.472222 -0.777778 -10.000000 108 89 78
2.527778 -0.777778 -10.000000 118 100 87
2.583333 -0.777778 -10.000000 109 86 68
2.638889 -0.777778 -10.000000 105 86 60
2.694444 -0.777778 -10.000000 117 98 62
2.759582 -0.780488 -10.034843 113 93 62
2.815331 -0.780488 -10.034843 107 86 60
2.871080 -0.780488 -10.034843 125 105 69
2.926829 -0.780488 -10.034843 136 118 73
2.982579 -0.780488 -10.034843 125 108 68
3.038327 -0.780488 -10.034843 121 107 69
3.104895 -0.783217 -10.069930 123 104 71
3.171930 -0.785965 -10.105263 115 95 65
3.239437 -0.788732 -10.140845 110 91 59
3.319149 -0.794326 -10.212766 104 86 61
3.400000 -0.800000 -10.285714 102 86 64
3.469534 -0.802867 -10.322580 102 86 64
3.526882 -0.802867 -10.322580 95 81 63
3.584229 -0.802867 -10.322580 89 75 61
3.641577 -0.802867 -10.322580 98 79 60
3.685714 -0.800000 -10.285714 101 81 62
3.729537 -0.797153 -10.249110 104 82 62
3.786477 -0.797153 -10.249110 115 88 57
3.829787 -0.794326 -10.212766 117 91 58
3.886525 -0.794326 -10.212766 119 93 61
3.957295 -0.797153 -10.249110 126 102 64
4.043011 -0.802867 -10.322580 122 98 65
4.115108 -0.805755 -10.359713 114 92 62
4.172662 -0.805755 -10.359713 109 85 57
4.245487 -0.808664 -10.397112 133 105 64
4.318841 -0.811594 -10.434783 157 126 81
4.376812 -0.811594 -10.434783 124 98 73
4.450909 -0.814545 -10.472727 117 96 76
4.525548 -0.817518 -10.510949 122 100 76
4.583941 -0.817518 -10.510949 154 126 86
4.659341 -0.820513 -10.549451 169 138 98
4.717949 -0.820513 -10.549451 145 117 83
4.794117 -0.823529 -10.588235 130 104 67
4.852941 -0.823529 -10.588235 128 100 57
4.911765 -0.823529 -10.588235 113 85 47
4.970588 -0.823529 -10.588235 109 84 46
5.029412 -0.823529 -10.588235 105 81 41
5.051095 -0.817518 -10.510949 113 87 38
5.072464 -0.811594 -10.434783 99 75 35
5.075269 -0.802867 -10.322580 55 38 29
5.096086 -0.797153 -10.249110 44 29 29
5.080702 -0.785965 -10.105263 37 32 29
6.259414 -0.937239 -12.050209 43 46 39
6.222222 -0.921811 -11.851851 51 61 41
6.236735 -0.914286 -11.755102 63 73 45
6.225806 -0.903226 -11.612904 119 112 65
6.290323 -0.903226 -11.612904 139 123 74
6.432653 -0.914286 -11.755102 131 116 76
6.578512 -0.925620 -11.900826 68 67 49
6.644628 -0.925620 -11.900826 54 70 45
6.766667 -0.933333 -12.000000 60 85 51
7.038627 -0.961373 -12.360515 54 72 45
7.231441 -0.978166 -12.576419 79 85 43
7.365639 -0.986784 -12.687224 145 130 73
7.213675 -0.957265 -12.307693 157 135 83
4.580645 -0.602151 -7.741935 132 123 75
4.611260 -0.600536 -7.721179 89 112 58
7.387234 -0.953192 -12.255320 89 117 59
7.617391 -0.973913 -12.521739 93 118 61
7.788546 -0.986784 -12.687224 96 123 69
-2.911765 -0.882353 -10.588235 228 38 57
-2.852941 -0.882353 -10.588235 222 43 56
-2.794118 -0.882353 -10.588235 175 94 56
-2.705455 -0.872727 -10.472727 169 78 49
-2.647273 -0.872727 -10.472727 202 38 47
-2.589091 -0.872727 -10.472727 195 37 44
-2.521739 -0.869565 -10.434783 189 37 42
-2.463768 -0.869565 -10.434783 211 34 42
-2.388489 -0.863309 -10.359713 210 32 42
-2.322581 -0.860215 -10.322580 207 32 41
-2.257143 -0.857143 -10.285714 205 32 41
-2.161403 -0.842105 -10.105263 201 30 40
-2.083333 -0.833333 -10.000000 203 30 43
-2.006873 -0.824742 -9.896907 204 30 46
-1.925424 -0.813559 -9.762712 205 30 45
-1.815789 -0.789474 -9.473684 208 30 45
-1.729032 -0.774194 -9.290322 207 31 46
-1.635220 -0.754717 -9.056603 209 32 50
-1.570094 -0.747664 -8.971963 231 44 63
-1.501539 -0.738462 -8.861539 251 55 71
-1.439024 -0.731707 -8.780488 250 50 67
-1.349112 -0.710059 -8.520710 242 47 64
-1.275362 -0.695652 -8.347826 219 45 60
-1.201133 -0.679887 -8.158640 201 43 58
-1.133333 -0.666667 -8.000000 165 46 56
-1.073973 -0.657534 -7.890411 91 58 52
-1.021739 -0.652174 -7.826087 73 64 52
-0.975610 -0.650406 -7.804878 94 94 75
-0.929730 -0.648649 -7.783784 118 123 103
-0.886486 -0.648649 -7.783784 99 105 81
-0.843243 -0.648649 -7.783784 64 66 48
-0.800000 -0.648649 -7.783784 62 60 46
-0.758808 -0.650406 -7.804878 65 62 46
-0.717391 -0.652174 -7.826087 69 62 49
-0.675749 -0.653951 -7.847412 101 56 52
-0.637363 -0.659341 -7.912088 140 44 55
-0.951542 -1.057269 -12.687224 126 48 56
-0.881057 -1.057269 -12.687224 106 58 60
-0.803493 -1.048035 -12.576419 117 72 63
-0.727273 -1.038961 -12.467532 120 96 69
-0.646809 -1.021277 -12.255320 121 106 82
-0.576271 -1.016949 -12.203390 118 108 93
-0.506329 -1.012658 -12.151898 120 111 95
-0.438819 -1.012658 -12.151898 128 135 98
-0.369748 -1.008403 -12.100841 134 159 101
-0.301255 -1.004184 -12.050209 129 165 97
-0.234310 -1.004184 -12.050209 126 164 97
-0.167364 -1.004184 -12.050209 131 168 103
-0.100418 -1.004184 -12.050209 140 175 119
-0.033473 -1.004184 -12.050209 139 176 129
0.033333 -1.000000 -12.000000 139 181 126
0.100000 -1.000000 -12.000000 138 179 128
0.166667 -1.000000 -12.000000 134 174 136
0.231405 -0.991736 -11.900826 130 169 136
0.295082 -0.983607 -11.803279 127 166 137
0.357724 -0.975610 -11.707317 121 157 126
0.419355 -0.967742 -11.612904 119 132 87
0.480000 -0.960000 -11.520000 128 101 47
0.535433 -0.944882 -11.338583 134 97 43
0.593750 -0.937500 -11.250000 127 91 43
0.656250 -0.937500 -11.250000 151 111 54
0.713178 -0.930233 -11.162790 163 121 56
0.766284 -0.919540 -11.034483 154 113 55
0.824427 -0.916031 -10.992367 134 95 51
0.882129 -0.912548 -10.950570 119 83 44
0.928839 -0.898876 -10.786517 122 88 47
0.988764 -0.898876 -10.786517 128 93 51
1.044776 -0.895522 -10.746268 134 99 55
1.100372 -0.892193 -10.706320 134 98 54
1.155556 -0.888889 -10.666667 119 81 44
1.205882 -0.882353 -10.588235 119 83 49
1.264706 -0.882353 -10.588235 128 95 59
1.323529 -0.882353 -10.588235 126 92 55
1.382353 -0.882353 -10.588235 127 90 58
1.435897 -0.879121 -10.549451 122 87 54
1.494506 -0.879121 -10.549451 127 92 58
1.547445 -0.875912 -10.510949 130 97 63
1.605839 -0.875912 -10.510949 124 93 65
1.664234 -0.875912 -10.510949 123 92 63
1.716364 -0.872727 -10.472727 117 89 60
1.774545 -0.872727 -10.472727 116 93 69
1.832727 -0.872727 -10.472727 130 106 78
1.890909 -0.872727 -10.472727 124 102 74
1.942029 -0.869565 -10.434783 122 100 66
1.985612 -0.863309 -10.359713 122 96 61
2.028571 -0.857143 -10.285714 119 90 58
2.056338 -0.845070 -10.140845 113 87 59
2.097902 -0.839161 -10.069930 118 89 54
2.146342 -0.836237 -10.034843 160 127 74
2.194444 -0.833333 -10.000000 188 156 116
2.250000 -0.833333 -10.000000 134 108 86
2.305556 -0.833333 -10.000000 106 87 69
2.361111 -0.833333 -10.000000 117 94 74
2.416667 -0.833333 -10.000000 112 93 79
2.472222 -0.833333 -10.000000 116 101 95
2.527778 -0.833333 -10.000000 127 109 98
2.583333 -0.833333 -10.000000 109 89 70
2.638889 -0.833333 -10.000000 94 78 58
2.694444 -0.833333 -10.000000 119 99 61
2.750000 -0.833333 -10.000000 126 106 73
2.805556 -0.833333 -10.000000 107 86 61
2.861111 -0.833333 -10.000000 120 100 67
2.916667 -0.833333 -10.000000 138 121 79
2.972222 -0.833333 -10.000000 113 100 66
3.027778 -0.833333 -10.000000 117 104 71
3.094077 -0.836237 -10.034843 130 112 80
3.160839 -0.839161 -10.069930 110 91 65
3.228070 -0.842105 -10.105263 101 84 57
3.284210 -0.842105 -10.105263 110 91 60
3.363958 -0.848057 -10.176679 104 87 63
3.420495 -0.848057 -10.176679 108 91 61
3.489362 -0.851064 -10.212766 99 83 59
3.546099 -0.851064 -10.212766 93 76 60
3.602837 -0.851064 -10.212766 108 85 61
3.659575 -0.851064 -10.212766 113 89 64
3.703180 -0.848057 -10.176679 122 96 63
3.746479 -0.845070 -10.140845 135 105 61
3.789474 -0.842105 -10.105263 129 99 60
3.845614 -0.842105 -10.105263 121 94 59
3.915493 -0.845070 -10.140845 129 101 65
3.971831 -0.845070 -10.140845 133 105 67
4.056737 -0.851064 -10.212766 127 102 62
4.157706 -0.860215 -10.322580 119 92 58
4.230216 -0.863309 -10.359713 131 102 65
4.303249 -0.866426 -10.397112 136 107 73
4.361011 -0.866426 -10.397112 112 88 70
4.434783 -0.869565 -10.434783 116 94 75
4.509091 -0.872727 -10.472727 124 101 76
4.583941 -0.875912 -10.510949 150 122 81
4.659341 -0.879121 -10.549451 161 130 86
4.717949 -0.879121 -10.549451 143 114 80
4.776557 -0.879121 -10.549451 133 103 67
4.852941 -0.882353 -10.588235 123 91 58
4.911765 -0.882353 -10.588235 97 71 48
4.970588 -0.882353 -10.588235 98 76 43
5.029412 -0.882353 -10.588235 106 80 41
5.032727 -0.872727 -10.472727 112 88 36
5.072464 -0.869565 -10.434783 95 74 36
5.130435 -0.869565 -10.434783 54 43 36
7.019608 -1.176471 -14.117647 45 38 39
7.276382 -1.206030 -14.472362 38 41 43
7.356784 -1.206030 -14.472362 40 45 48
6.757991 -1.095890 -13.150685 42 45 45
6.338983 -1.016949 -12.203390 38 43 41
6.300000 -1.000000 -12.000000 42 54 45
6.288066 -0.987654 -11.851851 60 69 47
6.327869 -0.983607 -11.803279 125 117 66
6.446281 -0.991736 -11.900826 140 121 72
6.756302 -1.008403 -12.100841 40 51 33
6.852321 -1.012658 -12.151898 44 60 38
7.161572 -1.048035 -12.576419 42 53 38
7.327434 -1.061947 -12.743362 70 71 39
7.398230 -1.061947 -12.743362 142 129 71
4.549865 -0.646900 -7.762803 157 136 81
4.580645 -0.645161 -7.741935 130 118 71
4.611260 -0.643432 -7.721179 78 93 49
4.679245 -0.646900 -7.762803 77 97 49
7.718061 -1.057269 -12.687224 81 103 52
7.857778 -1.066667 -12.800000 88 112 58
-2.798587 -0.904594 -10.176679 221 39 54
-2.732394 -0.901408 -10.140845 203 71 55
-2.724014 -0.917563 -10.322580 132 149 67
-2.695652 -0.927536 -10.434783 136 115 56
-2.637681 -0.927536 -10.434783 192 42 49
-2.579710 -0.927536 -10.434783 195 36 48
-2.512635 -0.924188 -10.397112 183 36 44
-2.454874 -0.924188 -10.397112 199 35 45
-2.388489 -0.920863 -10.359713 195 34 49
-2.322581 -0.917563 -10.322580 204 32 45
-2.257143 -0.914286 -10.285714 208 31 40
